# Exported by Aspose.3D
VERSION .7
FIELDS x y z rgb
SIZE 4 4 4 4
TYPE F F F F
COUNT 1 1 1 1
WIDTH 706
HEIGHT 1.2108e+06
VIEWPOINT 0 0 0 1 0 0 0
POINTS 706
DATA ascii
18.293693209223918 -5.651056647692492 5.950463341478399 4.2108e+06
18.767079910362575 -5.12731858938774 6.5675281218840125 4.2108e+06
19.49734907897901 -4.240294324592134 6.630201134557812 4.2108e+06
18.73134180703571 -5.18198198205078 6.772786458956002 4.2108e+06
19.40947589941466 -4.365840134733639 6.833694689718318 4.2108e+06
20.077393144586274 -3.566447344790447 7.404760936744132 4.2108e+06
19.448949054602544 -4.3964225664036904 7.542461718531555 4.2108e+06
20.027205847172482 -3.6884494327146364 7.774371369304443 4.2108e+06
20.68391710425862 -2.8581392125497316 8.251150224122185 4.2108e+06
20.204971445927804 -3.5258226318508106 8.280981720584212 4.2108e+06
20.609473048032502 -3.038613244320638 8.71426511905344 4.2108e+06
21.413937415576974 -1.8200639252849715 8.844039332297013 4.2108e+06
21.132764051454068 -2.288707174401991 8.936017842384846 4.2108e+06
21.428089841603033 -1.8172163559890502 9.020902727703461 4.2108e+06
21.716101748951196 -1.3643535623048872 9.32694149698831 4.2108e+06
21.644682564135877 -1.4945351429724443 9.658717625835777 4.2108e+06
21.779346642589434 -1.259965030372893 9.742839943550486 4.2108e+06
22.384707604216793 -0.12128238163912117 9.702664195939711 4.2108e+06
22.128078191984937 -0.6209732342990342 10.138673203745075 4.2108e+06
22.343782892226194 -0.1980538451885708 10.111002977961938 4.2108e+06
22.741918370147552 0.6340695203633735 10.411563205654726 4.2108e+06
22.46426699215168 0.0503950476874995 10.457983144243194 4.2108e+06
22.695535699212826 0.5150254455053542 10.834030570792414 4.2108e+06
23.19333675255202 1.6574698249969542 10.66747468888106 4.2108e+06
22.732830593624687 0.570167603635912 11.093635342839502 4.2108e+06
23.233254889590476 1.6957558123333372 11.20971180831018 4.2108e+06
23.544053890587932 2.478608518493619 11.251462798802887 4.2108e+06
23.387756818418048 1.9748076917787412 11.672382356118588 4.2108e+06
23.53806988333265 2.254901847239267 12.009655135604559 4.2108e+06
23.885508074872032 3.2872395658943137 11.801142046271883 4.2108e+06
23.71351595015808 2.632422958404439 12.26643224749374 4.2108e+06
23.97783171059975 3.3847146971776945 12.262977181846988 4.2108e+06
24.300540993470495 4.219059564593414 12.650634421963883 4.2108e+06
24.19532567450295 3.776724939998039 12.814270402078483 4.2108e+06
24.358348105332517 4.061996328203162 13.193926074373747 4.2108e+06
24.678941830440927 5.368328343693379 13.003134231023484 4.2108e+06
24.551664392465295 4.62679908628282 13.363657214029324 4.2108e+06
24.745767250794582 5.0415457353440605 13.726114423012543 4.2108e+06
25.082214404293588 6.316053490281275 13.907774449294907 4.2108e+06
24.812612153609003 4.978817216779087 14.100943848410278 4.2108e+06
25.125068749540365 6.421048280311048 13.998928841437333 4.2108e+06
25.48522760100672 7.603127241014771 14.562339496029642 4.2108e+06
25.50275038572176 7.034608687728681 15.022041164612059 4.2108e+06
25.43426497911135 7.065558027910153 14.728192489875006 4.2108e+06
25.748225274783195 8.537685777936963 15.001554292603167 4.2108e+06
25.870159598240463 8.121704749705364 15.6938808779927 4.2108e+06
25.930307422393113 8.589862991763987 15.68114812087535 4.2108e+06
25.9815961707738 9.06629619933234 15.678854345582176 4.2108e+06
26.154184708036077 8.670118818268767 16.532959387553735 4.2108e+06
26.14118126930645 9.046942084150688 16.338123717624423 4.2108e+06
26.408074593652703 10.321754735440177 17.015690247172905 4.2108e+06
26.488885320135296 9.35108963241025 17.554826451497895 4.2108e+06
26.53724709536719 9.892846151706681 17.583416502131527 4.2108e+06
26.849543717249443 11.663219851289238 18.203823797002286 4.2108e+06
26.715099350884817 9.93626444194566 18.147621514418194 4.2108e+06
26.85252903937682 11.041879991894852 18.30628389677632 4.2108e+06
27.006010874428156 11.818064144655192 18.586680262721902 4.2108e+06
27.245212426105528 10.949388132493613 19.298670448291983 4.2108e+06
27.42651234708359 11.225303493323395 19.681926813028802 4.2108e+06
27.90679842476958 12.971107187007593 20.4897160223869 4.2108e+06
28.00445377477918 11.277805503066304 20.870410901575582 4.2108e+06
27.6418317711556 10.814295799697597 20.2247820412039 4.2108e+06
28.49181936825967 11.694104051644889 21.791862359907604 4.2108e+06
27.953770833113634 12.38763890571289 20.64413903103648 4.2108e+06
28.686813653304178 12.938780670865123 22.058937238011772 4.2108e+06
28.83832767668725 11.798724777530873 22.400443622345644 4.2108e+06
29.133463159291317 11.982807377928278 22.889488631997406 4.2108e+06
29.65922308358421 12.627025746436038 23.773635411072163 4.2108e+06
29.764343795125846 12.102295082058744 23.917744768480215 4.2108e+06
29.858644285431584 12.2451407779755 24.06442720468562 4.2108e+06
30.174916576974525 12.916636128725738 24.60004837394334 4.2108e+06
30.20019165093674 12.553113972830083 24.591456281090828 4.2108e+06
30.410511156217595 12.86394277492975 24.93403288643359 4.2108e+06
30.874747815736427 13.586831647968756 25.7393318910799 4.2108e+06
30.566404623946767 13.024791666072094 25.165202040519652 4.2108e+06
30.79537287531321 13.374016257261042 25.55658278838365 4.2108e+06
31.304962673629113 14.119372226019378 26.443870572852532 4.2108e+06
31.13542907049424 13.755209225448993 26.063640451614177 4.2108e+06
31.274805775148018 13.99687635364071 26.335712467514977 4.2108e+06
31.885314308373292 14.8327623992264 27.38044794404815 4.2108e+06
31.482668737412546 14.188390950233842 26.599796700468012 4.2108e+06
31.86820283013627 14.699321392606784 27.234490800603727 4.2108e+06
32.426458607890595 15.466466202294392 28.242729099125505 4.2108e+06
32.35229621199471 14.95331490392206 27.524467199159062 4.2108e+06
32.38741603342507 15.298461949110964 28.011352251585663 4.2108e+06
32.93331999176982 15.781703224896784 28.64595951850317 4.2108e+06
33.00359744788526 15.20742200328184 27.7860654121286 4.2108e+06
33.16951851939921 15.618329074736334 28.356838176871715 4.2108e+06
34.534239677021986 16.04858886668812 28.64879813019011 4.2108e+06
34.95625669269741 15.523998686157444 27.731843798034276 4.2108e+06
35.90478984238921 15.883566389497563 27.97367294065797 4.2108e+06
36.7409414531926 16.523706464508713 28.687931071174404 4.2108e+06
37.02793132990217 16.184802158209276 28.01706648890078 4.2108e+06
37.217336501746246 16.41209239841178 28.320659459512246 4.2108e+06
38.024970006726065 16.883108158357775 28.77360042534964 4.2108e+06
38.53707522566572 16.68576532951503 28.155917707179448 4.2108e+06
38.79809925312685 17.085362450685675 28.709027538956228 4.2108e+06
38.72674115311244 17.366738265323832 29.289792794188138 4.2108e+06
39.56524139002559 17.237134434926098 28.512522971002312 4.2108e+06
39.37638278806646 17.541714524937202 29.221287231996563 4.2108e+06
39.28968921960226 17.78199804519992 29.890367938461132 4.2108e+06
40.07113992314988 17.743816480768682 29.184184287694322 4.2108e+06
39.683909988658826 17.819434777257122 29.691725109263004 4.2108e+06
39.973505904006885 17.95878371170133 29.916430625042185 4.2108e+06
40.5112927782354 18.007763934678515 29.348777398691876 4.2108e+06
40.32986872982481 18.05961377891467 29.872605423978655 4.2108e+06
40.79929350719138 18.317870285541904 30.011890012572504 4.2108e+06
40.877674863499486 18.388031606501745 29.7379837818178 4.2108e+06
40.86001971701358 18.351721577437203 30.009831077620852 4.2108e+06
40.391200510342784 17.521351822227405 30.65997870852587 4.2108e+06
40.39868860866223 17.996271765725112 30.20779148850187 4.2108e+06
40.785068374219556 17.839980384605948 30.54785590774234 4.2108e+06
41.48575115221223 17.797942275428213 31.155850996363405 4.2108e+06
41.43197344623052 18.354581111565732 30.676664942795256 4.2108e+06
41.488541720495824 18.167944589591542 30.862026334551544 4.2108e+06
42.467548202285926 18.33279899580015 31.945715004390955 4.2108e+06
41.92088172552238 19.014864642462463 30.876255755194535 4.2108e+06
42.370686773223476 18.484912202116504 31.7030576555283 4.2108e+06
42.90040153540643 19.157338802310107 32.28051399425511 4.2108e+06
42.7915013235577 19.630178342578542 32.00421378539698 4.2108e+06
42.90149818065484 19.427114079301155 32.19038984558654 4.2108e+06
43.39712754836238 19.90275415022278 33.35582421715805 4.2108e+06
43.255007428722365 20.44523669739817 32.96197300884182 4.2108e+06
43.15240781212219 21.12892384515862 33.076412545146724 4.2108e+06
43.36728746650926 21.46871085735515 34.32910440390279 4.2108e+06
43.05023647330586 21.956966680443117 33.80027945634695 4.2108e+06
43.24077831757214 21.76630881741759 34.28568558301227 4.2108e+06
42.55580489552098 22.9953579025487 34.68027476699724 4.2108e+06
42.397284640822924 23.194202607349325 35.00831372859676 4.2108e+06
42.87473626474908 22.50429706962076 35.39760736803585 4.2108e+06
43.155888409260555 21.486592753001478 36.2703800548223 4.2108e+06
43.47966338682234 20.678284521661535 35.892734105604134 4.2108e+06
42.992261819006536 21.824090536912003 36.291306036929996 4.2108e+06
42.04528408474789 22.338727555389266 37.641984877103916 4.2108e+06
42.17424404982142 22.846265274942045 36.7136094962601 4.2108e+06
42.2445982551075 22.454382085245015 37.175883367707236 4.2108e+06
41.78663988644907 23.536437733659362 36.035226153378034 4.2108e+06
41.44857774065052 23.247864716757963 37.17691161284669 4.2108e+06
40.773899675402475 23.694106620521644 37.16223580068872 4.2108e+06
40.18412468861003 23.51691750955167 37.7663998443813 4.2108e+06
40.592416043499824 23.04176405188118 38.07602898088188 4.2108e+06
40.03587200713801 22.653232617822187 38.63386928772991 4.2108e+06
40.657307405550526 22.602195885379352 38.45251773649807 4.2108e+06
39.902051900956224 21.969924130293805 39.050277936030945 4.2108e+06
40.05287767521067 21.608775266514222 39.129142332476945 4.2108e+06
40.22727980611559 20.969839606654784 39.21652539009659 4.2108e+06
41.00280793211553 20.50096706125683 38.972314518870554 4.2108e+06
41.1606903063659 21.252284968739396 38.76185247046812 4.2108e+06
42.009840291203226 20.623323586023808 38.28760594624649 4.2108e+06
41.96823941170432 21.07534628311111 38.24960919359699 4.2108e+06
42.79997587415943 20.5722549861703 37.44668720061621 4.2108e+06
42.8783432060377 20.75183865130431 37.27162973416492 4.2108e+06
43.006555432165115 19.08919180133386 37.05631232703701 4.2108e+06
43.04490681890071 18.955066664591392 36.93191641650772 4.2108e+06
43.326906563493345 19.80991771972894 36.51107398756545 4.2108e+06
43.52271216173778 19.199442834532306 35.76708690997385 4.2108e+06
43.53048550827142 19.841138219048354 35.90214653187404 4.2108e+06
43.60801791145861 19.100142021696957 35.045382905045166 4.2108e+06
43.627653262740864 19.733117161689155 34.73563350459229 4.2108e+06
43.346583931584 18.10673783194747 34.78349728049807 4.2108e+06
42.9622933553512 17.713312549010865 33.59336375114967 4.2108e+06
43.37083749732781 18.576651308783926 33.86486659262251 4.2108e+06
42.56028546888338 17.20242156190509 33.252795967494485 4.2108e+06
42.0939358652899 16.867677599227033 32.88127789703156 4.2108e+06
42.54063380351695 17.603959632732213 32.69712801160524 4.2108e+06
41.25889536233974 16.384123683183738 32.512586657789726 4.2108e+06
41.26944066918048 16.79552644024282 31.89588878498495 4.2108e+06
41.61234849783953 17.120083999894124 31.90288534055079 4.2108e+06
40.06573010239982 16.268436783108317 31.71352221093977 4.2108e+06
39.790797094417016 16.510565881844244 31.328649377143503 4.2108e+06
40.40433352338538 16.854093808099158 31.247943994366267 4.2108e+06
39.359107384929004 16.21015966656862 31.518575697554706 4.2108e+06
39.038946241759014 16.703911624694513 30.981568198573388 4.2108e+06
39.25159509024638 16.655328316820547 31.054189448338963 4.2108e+06
38.81056564865677 17.15740188130888 30.564584808372793 4.2108e+06
39.22690122458021 17.549643801419762 30.264609031022527 4.2108e+06
38.37315123539854 17.58048698432229 30.134391051324545 4.2108e+06
39.15761518093362 17.729816367348135 30.073579067971973 4.2108e+06
37.666045442593834 17.50301030198868 30.19118092785595 4.2108e+06
36.99708382112152 17.448773578239866 30.340557912844424 4.2108e+06
38.04398452045522 17.581344365480074 30.08316216807728 4.2108e+06
36.56652044729691 17.424709160341767 30.505104985668716 4.2108e+06
36.62056168977276 17.39525149421285 30.41992749447314 4.2108e+06
37.69149222426899 17.221532183077215 29.562321380858936 4.2108e+06
36.04142502460119 17.10996509106662 30.016846331696463 4.2108e+06
35.062756236161235 17.258981942193618 30.55444905168231 4.2108e+06
34.505740649684334 17.0168778889186 30.18938608353603 4.2108e+06
36.61288209725268 16.94649182773552 29.457809356160272 4.2108e+06
33.600561416823474 16.966622000449934 30.337852547204616 4.2108e+06
33.531843865377326 16.887648580961987 30.22487167924755 4.2108e+06
34.048592441423665 16.69009054067144 29.78180641078693 4.2108e+06
33.33974326309172 16.684939921936135 29.944702908699924 4.2108e+06
33.14598829965318 16.425335097943194 29.578364465283727 4.2108e+06
33.14577625129125 16.392910748982523 29.535856933881778 4.2108e+06
32.914810740883446 16.152103248836276 29.174242933538327 4.2108e+06
32.75706739710547 16.060810665404247 28.974727054614224 4.2108e+06
32.89475399297556 16.111398482580988 29.12449590841866 4.2108e+06
32.47499600609942 15.751641748449721 28.51695823076873 4.2108e+06
32.32438937680244 15.539041000967414 28.242055246756046 4.2108e+06
32.29706505278321 15.414791985280651 28.126583748455936 4.2108e+06
32.00764449591422 15.400904425001027 27.778240132539118 4.2108e+06
31.677004294070485 14.88085953817112 27.175732436039464 4.2108e+06
31.83655617874249 14.898064811597116 27.39582626011118 4.2108e+06
31.31897752818807 15.20525392792106 26.69997226261733 4.2108e+06
30.999292622583187 15.003783627017008 26.17458160807163 4.2108e+06
31.333367492464724 14.37589672494051 26.570294586864243 4.2108e+06
30.600298117717387 15.323368624390564 25.57176473461477 4.2108e+06
30.293682278050436 15.222989244567675 25.05000760702096 4.2108e+06
30.661828642972296 14.136378155003957 25.501980588280322 4.2108e+06
29.908904726162294 15.331495486298929 24.39296235463864 4.2108e+06
29.59747389905622 14.788576904786144 23.78803591558042 4.2108e+06
29.52020336220596 14.46266226632206 23.620047329774806 4.2108e+06
29.008923567637478 14.67353660484351 22.689174729958687 4.2108e+06
28.754405036033504 14.373806880148821 22.19325574745418 4.2108e+06
28.901819532524506 14.169173756080808 22.458033892780374 4.2108e+06
28.171886868035962 14.60697544664621 21.074583046893533 4.2108e+06
27.758056582238346 13.833445711241982 20.206780486287926 4.2108e+06
27.91378225253887 13.721094050257232 20.506370053379722 4.2108e+06
26.92625925956719 13.835409499985879 18.4335625915995 4.2108e+06
26.853471506508285 13.358320676930791 18.229631414951527 4.2108e+06
27.013117576997768 12.668888319919674 18.561408858402153 4.2108e+06
26.588770734762488 13.044376286192607 17.464563473744647 4.2108e+06
26.540695519589022 12.926719972385978 17.320708438334787 4.2108e+06
26.77749516129844 12.693801472983472 17.960483988662446 4.2108e+06
26.304328615638628 12.665836675933116 16.58170008041766 4.2108e+06
26.328935550004978 11.771632106295714 16.6222966724533 4.2108e+06
26.38667153967191 11.702367666798242 16.80343781587916 4.2108e+06
26.036366644940014 11.855128034577195 15.594745420136334 4.2108e+06
25.97834064170069 11.143644358450889 15.355053577515449 4.2108e+06
26.13597539827906 10.587249054240036 15.984821398752752 4.2108e+06
25.723376054025184 10.61127824351964 14.40897024253426 4.2108e+06
25.68826270937246 9.566640050205768 14.447895035522718 4.2108e+06
25.821181058103647 9.728989740433526 14.915148927531215 4.2108e+06
25.446737577262436 9.206408875137493 13.519864121458355 4.2108e+06
25.369891405939004 8.89866041461752 13.28849750934587 4.2108e+06
25.43600483698347 8.213162242024206 13.967377352911281 4.2108e+06
25.26286813361277 8.543566766326354 12.949535771067008 4.2108e+06
25.178641979401494 7.8133718622689265 13.021437032372798 4.2108e+06
25.102527546475546 7.180508715710051 13.182831736506637 4.2108e+06
24.918938784373303 7.026284548571815 12.199812555171373 4.2108e+06
24.93261660451809 6.949034037822937 12.419653407142158 4.2108e+06
24.839609316842065 6.346202164370229 12.625587284548885 4.2108e+06
24.77207607235418 6.550940598664532 11.808886932565043 4.2108e+06
24.561832901417674 5.67314382773459 11.643320258858799 4.2108e+06
24.55830437453526 5.446977342290589 12.1187902143952 4.2108e+06
24.551793098090055 5.777508505534168 11.217059795854071 4.2108e+06
24.265376802728024 4.670181804445868 11.258819578705545 4.2108e+06
24.386698280383744 5.029354041997045 11.48954399723732 4.2108e+06
24.079140865783035 4.107902237606167 10.799804761875377 4.2108e+06
24.045513640189853 4.013408993316482 10.607228285599492 4.2108e+06
24.070036437639107 4.044350871081573 11.01743463173243 4.2108e+06
23.922911750786707 3.6523358021810233 10.212923611648701 4.2108e+06
23.741429078469515 3.1021149302385584 10.288919523910824 4.2108e+06
23.493357962318715 2.422420579831146 10.486581087973459 4.2108e+06
23.54455291096066 2.559348439717322 9.879025877658327 4.2108e+06
23.372855025193797 2.100106252521127 9.831612940320442 4.2108e+06
23.398649086170735 2.1664644999898273 10.072133547986802 4.2108e+06
23.046949380419058 1.2959444834093714 9.429128187929 4.2108e+06
22.868504716953503 0.9056097939810422 9.320056654167129 4.2108e+06
22.8267697974862 0.8050479591078649 9.530034900403038 4.2108e+06
22.742959401570513 0.6573077147283048 8.93549951180179 4.2108e+06
22.553069514500017 0.3395030203376591 8.42142117751477 4.2108e+06
22.404149968031028 -0.05843161966226734 9.113368175773344 4.2108e+06
22.15379810767256 -0.42477774561131215 8.291609626992782 4.2108e+06
21.896838009822638 -0.864293311981447 8.15255805244129 4.2108e+06
21.81802285256445 -1.0802118209197797 8.525597536083565 4.2108e+06
21.84097901226627 -0.868798836666726 7.721709595679989 4.2108e+06
21.435502305526747 -1.4712912725857499 7.23355759571149 4.2108e+06
21.164412047652682 -2.0391935577831255 7.787648198647025 4.2108e+06
21.26017751793316 -1.6997570909428732 6.921736955969857 4.2108e+06
20.716043156127974 -2.550434742857529 6.819497746724327 4.2108e+06
20.984523615835027 -2.1800067263026586 7.049490232042929 4.2108e+06
20.622671636457085 -2.601740690480154 6.176926680088913 4.2108e+06
20.291639893406412 -3.094669074973349 6.027675749749792 4.2108e+06
20.199496650727788 -3.2634343704692688 6.386485721325528 4.2108e+06
20.028499853951157 -3.458760828652622 5.211524166458693 4.2108e+06
19.641659202884004 -4.01246990901572 5.109161799941173 4.2108e+06
19.780757891212943 -3.8145918235816834 5.473359105197356 4.2108e+06
19.467464423681662 -4.432496919543269 3.8503056155002415 4.2108e+06
19.107843057432753 -4.849648793904519 4.090891405409614 4.2108e+06
19.030147584969214 -4.884455384392434 4.520686405651308 4.2108e+06
18.972689384157444 -5.260727734987731 3.0589950920459072 4.2108e+06
18.904760821067217 -5.658791127206349 2.1170748965505664 4.2108e+06
18.41788738383277 -5.80035944732135 3.571378935570535 4.2108e+06
18.40447588927537 -6.448566661594708 1.557609025097083 4.2108e+06
18.066411262760337 -6.727885499907696 1.7500921416568582 4.2108e+06
18.184878646018618 -6.4468306748421895 2.1984369522228397 4.2108e+06
18.235498716946502 -7.067440181321892 0.5457600672812583 4.2108e+06
17.830875287282574 -7.605566889221549 0.3717519469356667 4.2108e+06
17.20018301467322 -7.9630691013843835 0.7780128990516166 4.2108e+06
17.671670887639564 -8.20888550241151 -0.1861559626239369 4.2108e+06
17.340594469287105 -8.561837337415064 -0.2388286680445249 4.2108e+06
17.28068586345248 -8.257352785244437 0.19655512611963483 4.2108e+06
17.33409301988364 -9.015449795083708 -0.7408707876006215 4.2108e+06
16.50875560256279 -9.75078148325463 -0.8263571838449446 4.2108e+06
16.642266663028096 -9.394937739097486 -0.5435441371988718 4.2108e+06
16.669230189120093 -10.104645398011128 -1.3022189953998877 4.2108e+06
15.936856179593438 -10.683939193999212 -1.3450853141927288 4.2108e+06
15.908134380018968 -10.486783454794248 -1.1416459334582663 4.2108e+06
15.647461243905983 -11.239309503701577 -1.597407670031368 4.2108e+06
15.270176132772054 -11.509321981338516 -1.6123978996874042 4.2108e+06
15.331852783031431 -11.317814766699742 -1.5144803197272614 4.2108e+06
15.096692997143847 -11.740245923273692 -1.6791023195123418 4.2108e+06
14.70041625951167 -11.987857669836544 -1.6770553081929391 4.2108e+06
14.077398521087009 -12.30133213237406 -1.6445457170507924 4.2108e+06
14.365540544712252 -12.87559930901365 -1.7229922750587345 4.2108e+06
14.581189866944019 -12.863890875619441 -1.7266574563684491 4.2108e+06
14.067298188876602 -13.784372632002587 -1.7478709114955668 4.2108e+06
14.014778846781688 -12.991885223593627 -1.7204361911578228 4.2108e+06
13.117800090442774 -12.936452310711594 -1.6966391187663337 4.2108e+06
14.919533856620575 -16.14793414494079 -1.7751625487490676 4.2108e+06
15.103224317135881 -15.167638125931152 -1.7845609459986105 4.2108e+06
14.02224728805004 -15.938854414016522 -1.8080654721771219 4.2108e+06
15.083032594095865 -17.578243039148692 -1.7174521229892439 4.2108e+06
14.073016111105108 -15.602467989010115 -1.8152563587308217 4.2108e+06
13.58323499549147 -14.505482210770923 -1.767658630488468 4.2108e+06
13.06107928657245 -15.582988203205574 -1.791841705410249 4.2108e+06
14.512804745574101 -18.4235840461345 -1.697612052429405 4.2108e+06
14.187001301078357 -18.60085449350302 -1.6902492780573328 4.2108e+06
13.71573526594534 -17.77852985470153 -1.7340934279944813 4.2108e+06
13.608400800160434 -17.497652265881868 -1.7437094528904462 4.2108e+06
13.633014148961225 -17.445075222647574 -1.744830387471881 4.2108e+06
13.601267826820896 -18.912815984376387 -1.6705381141453572 4.2108e+06
13.090717675150591 -19.327532468474804 -1.544726907243036 4.2108e+06
12.86685248532769 -19.234673843518728 -1.6822622958576172 4.2108e+06
12.424684061858555 -19.696233870827694 -1.4691483170717456 4.2108e+06
11.963416496570852 -19.87273335211108 -1.4898251590427365 4.2108e+06
11.127110946836837 -20.150441140958172 -1.5322382412843432 4.2108e+06
11.580651512461307 -20.43716903599259 -0.9358536413169736 4.2108e+06
10.779622971807616 -20.657193759799476 -1.1072698026377739 4.2108e+06
9.913115318494166 -20.92102260685886 -1.1669680828142264 4.2108e+06
10.201343753894921 -21.129319516705902 -0.4390045494937109 4.2108e+06
9.623639469462145 -21.337975588045765 -0.34275630664525436 4.2108e+06
9.158375593309636 -21.38067664413589 -0.7278158331277342 4.2108e+06
9.611674952414084 -21.382883598758134 0.0449919712183907 4.2108e+06
7.8644246433500715 -21.854766801987587 0.1567297713398797 4.2108e+06
8.010338681054662 -21.83523867162389 0.0047086780131444655 4.2108e+06
7.2874441241753765 -21.81862536192654 0.7075377380105593 4.2108e+06
6.593327863630211 -21.860703959619148 0.8669418759588968 4.2108e+06
7.04606970238147 -21.909677881062493 0.6451898357362729 4.2108e+06
6.217867154341252 -21.49841116712883 1.369086329448936 4.2108e+06
5.237605295572832 -21.545832302569753 1.5036311175758161 4.2108e+06
5.0434280281393535 -21.930150694784427 1.13532061960713 4.2108e+06
4.787898541081388 -21.216664754371706 1.8750906623393233 4.2108e+06
3.712485185453259 -21.344066329528296 1.8948370957698992 4.2108e+06
3.6444620851893124 -21.714114670280313 1.5621542510292437 4.2108e+06
3.4090270369233293 -21.248940414891266 2.0866433310230605 4.2108e+06
2.680022074329818 -21.341914920743733 2.0964681075614124 4.2108e+06
2.370353522089058 -21.445838729309354 1.946595962703514 4.2108e+06
2.149071070810286 -21.12562712491523 3.0558197546255412 4.2108e+06
1.6672992894866239 -21.227005844397326 2.8324529455852305 4.2108e+06
1.4255320131513083 -21.388205841931253 2.3214384810037916 4.2108e+06
0.6465354342859607 -20.966504780416855 4.442828910122872 4.2108e+06
0.05334722912330389 -20.988118375304474 4.433744750122408 4.2108e+06
-0.10585943248374596 -21.129602574352347 3.6326968614168553 4.2108e+06
-0.33227060961261234 -20.968964550478915 5.147922395934819 4.2108e+06
-0.8733596719618437 -21.015492907070055 5.570919164419037 4.2108e+06
-1.0841758471855847 -20.966418113834884 4.877108062861641 4.2108e+06
-1.4506408272140765 -21.130724259673897 6.374649149906785 4.2108e+06
-2.7459872339769436 -20.995036547740042 5.92697137644544 4.2108e+06
-2.7807590026604334 -20.950385698813648 5.520464444333396 4.2108e+06
-3.47163147835973 -21.24494166883516 7.543349844966652 4.2108e+06
-3.6522971846512506 -21.223118426623703 7.522122541844494 4.2108e+06
-4.120403558810263 -21.107638275824634 7.17933742460823 4.2108e+06
-4.5595450733302885 -21.400164017171406 7.928540139727348 4.2108e+06
-5.258932146592331 -21.30154957723181 7.9307533909647026 4.2108e+06
-5.178854688065147 -21.084074011187134 7.675058743524033 4.2108e+06
-6.1622074511707625 -21.79716275249025 8.43724245673699 4.2108e+06
-6.501487096962074 -22.083451838898377 8.719841811766571 4.2108e+06
-6.300976840347709 -21.274543553776283 8.035067026073 4.2108e+06
-6.973376377641766 -22.27506843523374 9.035489296191235 4.2108e+06
-7.981716016074529 -22.04423619528786 9.003267996888395 4.2108e+06
-7.968436605280038 -21.609143396423715 8.565109868867646 4.2108e+06
-8.935635777608194 -22.043860663942816 9.345070371640073 4.2108e+06
-9.256405367305694 -21.972693832606815 9.387918771476688 4.2108e+06
-10.097139915088219 -21.748933658382786 9.335589060314454 4.2108e+06
-10.015928558444049 -21.8820163053276 10.017932761098429 4.2108e+06
-10.713915883173403 -21.70068373095217 9.943916997369342 4.2108e+06
-11.339259694041278 -21.50627284552499 9.84857420480165 4.2108e+06
-11.484325039631145 -21.394570859885373 10.50599440020562 4.2108e+06
-11.599167134743261 -21.249341194834386 10.752608382824334 4.2108e+06
-12.238564790036426 -21.18647152420325 10.299702702209364 4.2108e+06
-11.825028466342907 -20.74693462191433 11.1598810105047 4.2108e+06
-13.019657544210759 -20.335211052425432 11.156800875845295 4.2108e+06
-13.263833720062033 -20.66613803451402 10.742693975777804 4.2108e+06
-13.269263321167337 -19.493329729184524 11.770190259343709 4.2108e+06
-14.00914071298402 -19.259087057338675 11.699630436996891 4.2108e+06
-14.22251729876313 -19.243572081826155 11.630978189072518 4.2108e+06
-13.884084013352368 -18.941394100850168 11.996234235642799 4.2108e+06
-14.698914556100508 -18.611197242786442 11.940110144086374 4.2108e+06
-15.174329242285893 -18.537345604925967 11.797167408704713 4.2108e+06
-15.36721127332838 -18.368039820575646 12.238550492516644 4.2108e+06
-16.42020962863438 -17.888987121916365 12.144487145788634 4.2108e+06
-15.968837003560608 -18.070115237837275 11.866665113758165 4.2108e+06
-17.112843182743923 -17.62358877246211 12.666789865668292 4.2108e+06
-17.44960132387587 -17.430225543720585 12.659521460406728 4.2108e+06
-17.548452813167206 -17.307179095359135 12.060948440103186 4.2108e+06
-17.851539817196453 -17.302121294130668 13.424532520955921 4.2108e+06
-18.334340544441975 -16.993191420796414 13.382572222843063 4.2108e+06
-18.295080866742097 -16.92554146808761 12.736128425785175 4.2108e+06
-18.81248744089237 -16.8181624123291 14.00029446495687 4.2108e+06
-19.350171035734846 -16.493971878089148 14.127203815561028 4.2108e+06
-19.66253065980417 -16.128128724758863 13.477148455216174 4.2108e+06
-19.820824904077853 -16.244671300962114 14.430763475881403 4.2108e+06
-20.597369082562693 -15.7176212549359 14.511241712495348 4.2108e+06
-20.993929440719235 -15.298356431037059 14.008312174501231 4.2108e+06
-21.202511618167566 -15.39655429541754 14.975045980193517 4.2108e+06
-21.546802445011057 -15.070901184261295 14.754403429727597 4.2108e+06
-22.011281273358293 -14.671753367284019 14.650167152486503 4.2108e+06
-22.23936994589296 -14.76304263453126 15.555666668686538 4.2108e+06
-23.005926353420442 -14.140574672354456 15.527666158136167 4.2108e+06
-23.323244263333265 -13.769233980057948 15.186437989433376 4.2108e+06
-23.520106911173208 -14.040760420773411 16.40343462688809 4.2108e+06
-24.681735862739142 -12.957420865202826 16.119684474549405 4.2108e+06
-24.77041778349666 -12.836616497352475 15.999729535671724 4.2108e+06
-24.54931753606277 -13.55649063265416 17.204591942341036 4.2108e+06
-25.20219706301075 -13.03482495298744 17.27288551536821 4.2108e+06
-25.774071656352486 -12.226549015016907 16.629859742135274 4.2108e+06
-25.851964194533274 -12.865266332849593 17.890525299136453 4.2108e+06
-26.13742031305614 -12.654752465924133 17.95754641928467 4.2108e+06
-26.503262772358752 -11.941103277541425 17.383629868994902 4.2108e+06
-26.506112878167535 -12.635034336846143 18.34607908527786 4.2108e+06
-26.902813393719594 -12.42361686593328 18.531994756223124 4.2108e+06
-27.534756153191545 -11.612770197777117 18.328667991018733 4.2108e+06
-27.34942288089391 -12.601133949798868 19.16950100706776 4.2108e+06
-27.713129716597283 -12.408834031524183 19.360680499609007 4.2108e+06
-27.81353447996527 -11.954725719966302 19.034919289844826 4.2108e+06
-27.92698853023322 -12.563106717420826 19.664087083878357 4.2108e+06
-28.252486121437364 -12.422088557554495 19.884276272193986 4.2108e+06
-28.82853313075428 -12.105089535302358 20.245542570151798 4.2108e+06
-29.204566191902643 -12.182455497029785 20.607076702775174 4.2108e+06
-29.454169738041454 -12.18259923794077 20.799508768825255 4.2108e+06
-29.662162298669262 -11.877917363681432 20.966032210130088 4.2108e+06
-30.22532720873874 -12.15562449236679 21.531754312839443 4.2108e+06
-30.87419186810151 -11.960570059134692 22.130128553642585 4.2108e+06
-30.40724441379069 -11.78832830718364 21.655275132689596 4.2108e+06
-31.45672050055021 -11.665859353436293 22.632042118779093 4.2108e+06
-31.311993166408833 -11.59613290642703 22.490526407431734 4.2108e+06
-31.850790594265256 -11.47574570228943 23.00251831981158 4.2108e+06
-31.89369437823612 -11.361775504965134 23.0224471959261 4.2108e+06
-31.75680964587343 -11.909678498639114 23.072451185000617 4.2108e+06
-31.97611715504159 -11.946325040038928 23.380365064294807 4.2108e+06
-32.31310893290672 -12.41771657059818 24.288400683380374 4.2108e+06
-32.71598245742198 -12.149011124636337 24.373716012890625 4.2108e+06
-32.613945890765805 -11.966823109009843 24.113699814748827 4.2108e+06
-33.38698680571783 -12.055504176381156 25.095584551837057 4.2108e+06
-33.425005765178526 -11.887834314965799 25.004753215473492 4.2108e+06
-34.16008895502415 -11.71797847392614 25.820733036262148 4.2108e+06
-33.51614630125472 -12.514163995590401 25.986970624378653 4.2108e+06
-34.30367413953795 -12.44587798777625 26.954793796916555 4.2108e+06
-33.8755083412088 -12.737857291424467 26.84545130620468 4.2108e+06
-33.85153678271245 -12.855375786532557 27.047211379013937 4.2108e+06
-34.56528421948067 -12.727289893904688 27.826047144401443 4.2108e+06
-33.88735949650663 -12.895766129354174 27.21690213010848 4.2108e+06
-34.114108902346324 -12.86008216349037 27.57605595874906 4.2108e+06
-34.724832930049494 -12.554191333887529 28.73960734492972 4.2108e+06
-34.39261061388658 -12.668916239080236 28.22305238602519 4.2108e+06
-34.55538297936609 -12.535520268506879 28.671686041630217 4.2108e+06
-34.251913190987686 -11.82485245612695 29.836610384782453 4.2108e+06
-34.10582570360006 -12.015791986270877 29.253226316280635 4.2108e+06
-34.124166952192354 -11.712300320269007 29.915464154584495 4.2108e+06
-33.84927847530697 -11.490628616332693 30.012474904148327 4.2108e+06
-33.52202504557713 -11.246988511487839 30.060717141986423 4.2108e+06
-33.37013662745961 -11.153245098478362 30.147141621265952 4.2108e+06
-32.95739370145771 -11.459377871500674 30.628630935079684 4.2108e+06
-32.8372559969149 -10.757083035808432 30.323236528592098 4.2108e+06
-32.56324024190834 -10.74353195285871 30.55394016479821 4.2108e+06
-32.23078057660904 -11.298211118251713 31.112549929370733 4.2108e+06
-32.02023585224508 -10.533759009595926 30.972717945318156 4.2108e+06
-31.801552290550664 -10.789869760133197 31.34169138819109 4.2108e+06
-31.250521750797446 -11.35284800150423 32.322439715842506 4.2108e+06
-31.169960179481862 -10.428234843660693 32.02394569558837 4.2108e+06
-31.059908931276226 -10.604259533955537 32.24078191638528 4.2108e+06
-30.851241034255942 -10.969353555649892 32.89938332701941 4.2108e+06
-30.741747725905178 -10.007681322630393 32.81251669553573 4.2108e+06
-30.54097579133046 -9.903188186336253 33.361444491650374 4.2108e+06
-30.374227931738353 -10.381357918607991 34.49481064102579 4.2108e+06
-30.394022986817767 -9.626469252269427 34.11950151994059 4.2108e+06
-30.398529568563703 -9.431785794925773 34.27094606209156 4.2108e+06
-30.401122798830407 -9.744042221463479 35.16995011248619 4.2108e+06
-30.514821832196553 -8.950942329990397 35.29324085191234 4.2108e+06
-30.468226574579454 -9.361580321843558 35.4901665042418 4.2108e+06
-30.872144772059443 -8.92038135391859 36.58408168682167 4.2108e+06
-30.765972025152156 -8.446511589193335 35.981283522807885 4.2108e+06
-30.98825951960459 -8.614618227034434 36.720145143378836 4.2108e+06
-31.445837659981343 -8.27950448952922 37.27880160820485 4.2108e+06
-31.46037302251701 -7.61067906137465 36.7253248641288 4.2108e+06
-31.967858954842995 -7.81423365065962 37.59361088416608 4.2108e+06
-32.622350288126775 -8.010079629986286 38.276173304665576 4.2108e+06
-32.762464077727536 -7.1467140677433365 37.84708670804158 4.2108e+06
-32.80714509659271 -7.32696666452482 38.02996220572398 4.2108e+06
-33.901713459218115 -7.650408940812426 38.81428861691624 4.2108e+06
-33.320335505027344 -6.851059782109445 38.00792908957398 4.2108e+06
-34.47027919287151 -7.0836906050703625 38.68906435451474 4.2108e+06
-33.33549514130378 -6.4835479764434405 37.59792967254146 4.2108e+06
-34.093733684344556 -5.899017444489589 37.31780496193459 4.2108e+06
-34.332271881497824 -6.211324272190151 37.84735081827069 4.2108e+06
-34.89746782514851 -5.5859650976054676 37.181337363520335 4.2108e+06
-34.9744003065029 -5.924897327503542 37.73865312524602 4.2108e+06
-35.970445632316846 -5.491780134842689 37.1007924988304 4.2108e+06
-36.06236468318765 -5.651800367379889 37.35353276996149 4.2108e+06
-36.25848289134697 -6.168799253550874 37.98298814654869 4.2108e+06
-36.6941790595001 -5.8164644565913335 37.34861174753041 4.2108e+06
-36.9405753449379 -6.497079623918362 38.05259648930743 4.2108e+06
-37.40035396197264 -7.496893020650547 38.659993192306075 4.2108e+06
-37.8623764947789 -7.168471509834328 38.1891349635269 4.2108e+06
-38.05428854543783 -7.502891985685052 38.320718309884874 4.2108e+06
-37.825271999140575 -8.696889898842823 38.97019433041183 4.2108e+06
-38.370126321866806 -7.562011145526469 38.14996378214249 4.2108e+06
-38.27446021291412 -8.764532613269052 38.72166351396043 4.2108e+06
-39.083410769085916 -9.1657244877747 38.14543457526845 4.2108e+06
-38.711622521175414 -10.044430420361488 38.54671152206389 4.2108e+06
-38.57444007374434 -10.03083469273863 38.64573337040927 4.2108e+06
-37.67618204222735 -9.793000202681466 39.1955678150632 4.2108e+06
-37.98803984490057 -10.471745208638614 38.95759126518655 4.2108e+06
-37.21413809156735 -10.408120181365943 39.330445709049755 4.2108e+06
-35.9264120155892 -10.024676407925341 39.62987541173288 4.2108e+06
-36.67585763906104 -10.575590871024794 39.49599800377424 4.2108e+06
-36.21727781160342 -10.309467852389318 39.595995283280075 4.2108e+06
-36.21495996779946 -11.50658520326589 39.37009457425385 4.2108e+06
-35.93113404441698 -11.524528548954262 39.3807038242189 4.2108e+06
-37.185823455704714 -12.059905153686998 38.90045095347374 4.2108e+06
-36.813320749162564 -12.30751858133742 38.964829063219874 4.2108e+06
-36.26960601466699 -12.22263068527305 39.08097159841668 4.2108e+06
-36.45381785787919 -13.308181019759715 38.37778788013913 4.2108e+06
-36.14179705587199 -12.959663395161574 38.69332269352867 4.2108e+06
-36.40842237257628 -13.629476945157581 38.153799513884515 4.2108e+06
-35.76245745216677 -13.814299313208117 38.01973185167952 4.2108e+06
-36.15067861961126 -14.245248459348549 37.50440487351725 4.2108e+06
-35.19309398153211 -14.205298682380693 37.52063816837591 4.2108e+06
-37.327167223350386 -13.361426636811776 38.02161597739356 4.2108e+06
-36.96396794540275 -13.461135904851718 38.126621613074605 4.2108e+06
-37.75599741704333 -12.636356495017532 38.27788429290894 4.2108e+06
-37.61180840812114 -11.58251787859085 38.89998237761452 4.2108e+06
-38.210950936901654 -11.986433971168047 38.38368777997771 4.2108e+06
-38.63290592899375 -11.239347583157404 38.40915153108497 4.2108e+06
-39.23863224439085 -10.904242577516866 38.0363529467642 4.2108e+06
-39.113889007121074 -11.733230533102581 37.767063823924865 4.2108e+06
-39.66374225210553 -11.018873921776283 37.46394354747986 4.2108e+06
-39.889819555787184 -10.78828642931499 37.1283637074455 4.2108e+06
-39.65628387489952 -11.249501694205534 37.35435812647801 4.2108e+06
-40.18445360743638 -10.05605853873432 36.77812376744891 4.2108e+06
-40.45356431167623 -10.153299765229551 35.97077188904884 4.2108e+06
-40.28657746405233 -10.513130512525526 36.41647916498089 4.2108e+06
-40.58725639220498 -9.785671244753203 35.58929829630276 4.2108e+06
-40.6100150745576 -9.635872491344895 35.2795255525723 4.2108e+06
-40.60229948100255 -9.929715439193291 35.40261775153477 4.2108e+06
-40.43387725053211 -8.53834491720357 34.87384206401762 4.2108e+06
-40.32750309866639 -8.208892530218606 34.46620312679314 4.2108e+06
-40.52314761333173 -9.071091433773626 34.224436800100655 4.2108e+06
-40.13634179125991 -7.858750602960108 34.18666118965377 4.2108e+06
-39.819569750596074 -7.485100806270938 33.772414614757224 4.2108e+06
-39.88229890626695 -8.0493319629126 33.09852466062955 4.2108e+06
-39.23131961180102 -6.924832791864509 33.21705905964295 4.2108e+06
-39.085992489776885 -6.81798931647522 33.10984324464654 4.2108e+06
-39.26614860496551 -7.3240621173790075 32.74431600516354 4.2108e+06
-38.53098695617059 -6.336494831062399 32.945732260135756 4.2108e+06
-38.310669967304094 -6.6089626120792495 32.23918284230614 4.2108e+06
-38.270282356358834 -6.673199442767837 32.12725612222407 4.2108e+06
-37.14865107973411 -6.005327281685358 32.1028957878904 4.2108e+06
-37.04823497044492 -6.222321811136376 31.774690279850653 4.2108e+06
-37.53691199841513 -6.333763012856728 31.919008380783232 4.2108e+06
-36.261392781659126 -6.00325779793069 31.68108201533623 4.2108e+06
-35.83913320316917 -6.253463118440367 31.324244483661328 4.2108e+06
-36.2614967444519 -6.23589753868618 31.39462391133553 4.2108e+06
-35.599182459398406 -5.992476915732098 31.56529058920177 4.2108e+06
-34.653754988697436 -6.4629433314083276 31.048968091385365 4.2108e+06
-35.4565431534698 -6.478052773430254 31.055123839859245 4.2108e+06
-33.90971991261822 -6.599656099409282 30.98896682297959 4.2108e+06
-33.87763327680135 -6.679232754227519 30.895807035517883 4.2108e+06
-34.07874798620357 -6.8178038631146505 30.715685256501846 4.2108e+06
-33.1290605669505 -6.540558137802347 31.171733308836338 4.2108e+06
-33.28561425734715 -6.5908046664712 31.019196483808177 4.2108e+06
-33.293182220417286 -6.585005669878109 30.983830076173334 4.2108e+06
-32.35095539163808 -6.174182275096409 31.122821901668427 4.2108e+06
-32.249184010652854 -6.066155696816761 31.017138248102142 4.2108e+06
-32.20834938426823 -5.999684560162981 30.928450990248322 4.2108e+06
-31.7722095633961 -5.734737401441536 30.703449992793708 4.2108e+06
-31.73144637863093 -5.627128343119351 30.584804030165643 4.2108e+06
-31.729953401454537 -5.500475097398903 30.44997987340215 4.2108e+06
-31.611285177285176 -5.562209976899124 30.43229700697769 4.2108e+06
-31.334172760730088 -5.32070096304113 29.924573082445555 4.2108e+06
-31.46837263628304 -5.000478706439029 29.815846738826274 4.2108e+06
-31.602906215783474 -6.035064033661771 30.783490002945904 4.2108e+06
-31.53620797778051 -6.663623253209912 31.219603604799108 4.2108e+06
-30.968629870976763 -7.129022466036199 30.916930619680127 4.2108e+06
-31.894594026738257 -6.210017266318722 31.236072182481877 4.2108e+06
-32.05055795034433 -6.622782325837328 31.754945300332317 4.2108e+06
-32.175422196918134 -6.40025752003009 31.50171185779483 4.2108e+06
-32.19100043975093 -6.486997342022582 31.614063699791842 4.2108e+06
-32.38005260650679 -6.55404015347306 31.83303302731418 4.2108e+06
-32.36956377352172 -6.405395946087382 31.537076562442454 4.2108e+06
-32.69310314688512 -6.453936175907816 31.681258706271205 4.2108e+06
-32.85440576874219 -6.291770263659094 31.85829227433434 4.2108e+06
-32.87954076098899 -6.38618870125006 31.660211650297718 4.2108e+06
-33.1581619877079 -6.138998479304904 31.959598006596963 4.2108e+06
-33.99858368928594 -5.494757364517093 32.573749263828454 4.2108e+06
-34.350889277900066 -5.5861948585052215 32.3070657579169 4.2108e+06
-34.53289379900054 -5.573565623692865 32.30769313403273 4.2108e+06
-35.13707548141561 -5.123622859159702 33.14016974757026 4.2108e+06
-35.07335296342828 -5.339584179463099 32.605207352025765 4.2108e+06
-35.52645600151736 -5.2889553303104755 32.81439147436743 4.2108e+06
-36.341252009031216 -5.060266419389302 33.79309522465762 4.2108e+06
-36.39792040492694 -5.535522496434766 32.55106782200482 4.2108e+06
-36.91701905243333 -5.427221083520843 33.08323225390819 4.2108e+06
-37.126102820035804 -5.204345906396309 34.14340782404144 4.2108e+06
-37.37348192879733 -5.621150798405283 32.962767812716734 4.2108e+06
-38.03234244225882 -5.7950487712179735 33.37945191507942 4.2108e+06
-38.370130438960786 -5.835512658882493 34.731354469675146 4.2108e+06
-38.271845043558 -5.891142075016996 33.65904373831391 4.2108e+06
-38.57870190960016 -5.979243080808436 34.39532912880291 4.2108e+06
-39.430891819257496 -6.866300276583063 35.92272149876095 4.2108e+06
-39.59671526488572 -6.865721237093037 34.98109633703827 4.2108e+06
-39.6562310003919 -7.024801061670151 35.44860238161617 4.2108e+06
-38.92895741146857 -6.809094440936025 36.832721664536734 4.2108e+06
-38.66380300401971 -6.290281506987862 36.26901295618826 4.2108e+06
-39.00209750957234 -6.691342473644524 36.552904739128586 4.2108e+06
-39.41705825250134 -7.582480149288467 37.016633607183245 4.2108e+06
-39.533827846724414 -7.3414967513710865 36.60997853831283 4.2108e+06
-39.820742750920466 -8.090942211816731 36.81636599833145 4.2108e+06
-39.468205285352454 -8.199760445025321 37.40318167415013 4.2108e+06
-39.562160644280326 -8.522240350020253 37.4339033263064 4.2108e+06
-38.124256290725015 -6.548353085689919 37.34575892701951 4.2108e+06
-37.477439215309815 -5.729754678888454 36.59671380330493 4.2108e+06
-36.79827722275215 -5.293418863565259 36.14135230816248 4.2108e+06
-36.858751466879625 -5.15650472978286 35.614842499773005 4.2108e+06
-37.20858303273708 -5.254056972030124 35.589147932714525 4.2108e+06
-36.0631073442582 -5.0906986255326805 35.98020084456197 4.2108e+06
-35.76691393416836 -4.922284826707375 34.94250655935421 4.2108e+06
-36.259866251381354 -4.939844148914771 34.67715483479769 4.2108e+06
-34.71849347089885 -4.984161556681569 35.14232131505899 4.2108e+06
-34.13087921088123 -5.0558391989605544 34.35567075233136 4.2108e+06
-35.14479333153788 -4.936156158598417 34.07418011895383 4.2108e+06
-33.338616237844136 -5.298448461079928 34.535398633648995 4.2108e+06
-33.29916432093086 -5.390323655626929 33.943045801663786 4.2108e+06
-33.607145531126434 -5.268843990724138 33.85465837537769 4.2108e+06
-32.389422126270176 -5.874837148457922 33.755884662019476 4.2108e+06
-32.18966690680267 -6.032502485746912 33.69126403015028 4.2108e+06
-32.68160501087014 -5.932224399206316 33.03265133401094 4.2108e+06
-31.849767858068997 -6.482466188808813 33.29479236250869 4.2108e+06
-32.00060816974001 -6.5157242165238545 32.72795961166804 4.2108e+06
-32.22567386700511 -6.380336665944259 32.608361991621315 4.2108e+06
-31.540584323799095 -7.175356069028117 32.440582108438676 4.2108e+06
-31.668789983774822 -7.1277055900204855 32.14424317788931 4.2108e+06
-31.874537985279417 -6.918229211371225 32.050939581660714 4.2108e+06
-31.302797024891014 -7.758780592542159 32.0567885280056 4.2108e+06
-31.317934315161622 -7.782170636869899 31.973405078515874 4.2108e+06
-31.560908216241653 -7.345769308674411 31.992795575111277 4.2108e+06
-31.00306197638885 -8.312154080937969 31.66352469049015 4.2108e+06
-30.922563533666427 -8.479419684774554 31.53514888614915 4.2108e+06
-31.01520644433804 -8.163691434850596 31.693706915762846 4.2108e+06
-30.404772519331967 -8.297153381093455 31.038264717645372 4.2108e+06
-30.553474010307646 -8.096655096547565 31.12449039191216 4.2108e+06
-30.161816036514374 -8.378476509865939 30.777864312924617 4.2108e+06
-29.83455020246243 -8.398080678883264 30.421663244850194 4.2108e+06
-29.89857237160466 -8.287622797224065 30.495783973874605 4.2108e+06
-29.297874205714585 -8.436668968035324 29.8519239580654 4.2108e+06
-29.35749387038773 -8.353374056521547 29.889641468696702 4.2108e+06
-28.792408281515986 -8.482980016545355 29.273984555016966 4.2108e+06
-28.972640576153772 -8.499211173501795 29.48774042672576 4.2108e+06
-28.014078240934744 -8.703430605328615 28.401240952068754 4.2108e+06
-28.81973620046117 -8.639766892050993 29.19925158179611 4.2108e+06
-28.44286035154217 -8.69596374346786 28.79556973580698 4.2108e+06
-27.76886967029168 -9.080392787786522 27.770261627017362 4.2108e+06
-28.656578533247806 -8.892861051537745 28.757794461231754 4.2108e+06
-28.312453392590932 -9.446592221038655 27.794674864285966 4.2108e+06
-28.030611252963375 -10.254129501462089 26.638207218251306 4.2108e+06
-28.550430694433622 -10.355213532156442 26.92710640125039 4.2108e+06
-28.58544837352988 -10.895721264866934 26.299826407089192 4.2108e+06
-28.172677034376946 -11.20779806517861 25.63546692165589 4.2108e+06
-28.717808612619454 -11.690978916200711 25.443527824143 4.2108e+06
-28.66522168253693 -11.708170087952912 25.38563025105117 4.2108e+06
-28.048142686100235 -12.367078267999673 24.233802560025282 4.2108e+06
-28.934971240392585 -12.571106427762695 24.530432111488643 4.2108e+06
-28.518424016436178 -12.708120277685993 24.109891763177345 4.2108e+06
-28.102955626904986 -13.153422683712762 23.40737710954439 4.2108e+06
-28.86282659111528 -13.18784649807831 23.739959830447425 4.2108e+06
-29.183605930405808 -13.638597334460307 23.297933837837448 4.2108e+06
-28.339339386463948 -13.801125031345286 22.749681930133743 4.2108e+06
-29.021346836919797 -13.821600519227104 22.994622781453153 4.2108e+06
-28.394283909665873 -13.941401321622704 22.609602780893283 4.2108e+06
-27.711210486258672 -14.269287194735586 22.015715357869745 4.2108e+06
-28.324673272306523 -14.147948732190581 22.30860841645483 4.2108e+06
-27.870724385004323 -14.304788412768296 21.97183288835722 4.2108e+06
-26.640370729977235 -14.775550072478008 21.235449856944562 4.2108e+06
-27.595416019896224 -14.425309507663261 21.755745534294995 4.2108e+06
-26.991082376558904 -14.649129132069156 21.35156736125383 4.2108e+06
-26.128082977984338 -15.045503417468892 20.87692170444153 4.2108e+06
-27.17766743018776 -14.582079066865878 21.327006875372483 4.2108e+06
-26.55309510840852 -14.792902285584582 20.77382387627238 4.2108e+06
-25.840026786135898 -15.17160156324347 20.483755754393197 4.2108e+06
-26.080564236087653 -14.965999796360165 20.40394189074771 4.2108e+06
-25.52499417014136 -15.314032737250509 20.297034944840888 4.2108e+06
-24.963754204616194 -15.532377891885208 19.799414964623036 4.2108e+06
-25.825407983445146 -14.682544940099106 19.508297008451862 4.2108e+06
-25.248210060841956 -15.019726908514642 19.321013539048472 4.2108e+06
-24.407248805187983 -15.546689343019441 19.025531568112537 4.2108e+06
-24.669765601376962 -15.059252264386078 18.626944585981995 4.2108e+06
-24.413773505606276 -15.171262402703604 18.511716271149616 4.2108e+06
-23.197461356145453 -16.097811238896842 18.438712355698033 4.2108e+06
-24.338631626064096 -14.921668202489247 18.13695604900678 4.2108e+06
-23.40767348483981 -15.588838491327717 18.035454365147125 4.2108e+06
-22.099721392752656 -16.368311197273393 17.865436672891526 4.2108e+06
-22.409737525437063 -15.918698616626124 17.728405963881013 4.2108e+06
-21.937325834783326 -16.43092639579929 17.828616323187234 4.2108e+06
-20.735995212165037 -17.132123097601866 17.87265242090229 4.2108e+06
